ply
format ascii 1.0
comment Created by CloudCompare v2.13.alpha
comment Created 2023-03-09T17:14:53
obj_info Generated by CloudCompare!
element vertex 1364
property float x
property float y
property float z
end_header
-38.518658 -145.619247 -88.142288 
-121.616531 -182.835480 3.963879 
-55.515804 -162.348785 -67.187813 
-17.613289 -114.812157 -116.287949 
-48.490742 -131.591522 -81.378815 
-52.609257 -149.338425 -73.125275 
-26.117229 -141.234116 -101.616959 
-17.082886 -127.998566 -113.762161 
-59.892303 -136.345901 -68.822891 
-130.698212 -188.427628 14.383743 
-92.556953 -176.155472 -26.776611 
-20.641640 -116.813606 -112.781662 
-12.792053 -115.638824 -120.939255 
-77.235962 -155.753357 -46.899204 
-79.830444 -168.637360 -41.304527 
-76.339233 -170.860886 -44.295788 
-58.986870 -152.448410 -65.997444 
-16.673733 -113.574799 -117.518753 
-36.970737 -143.467484 -90.196312 
-54.385223 -136.272903 -74.371826 
-44.334759 -132.171371 -85.419113 
-104.811066 -180.360977 -13.491592 
-66.381500 -166.054489 -55.413418 
-86.376984 -169.518234 -34.524048 
-32.497047 -131.284256 -97.516144 
-126.670792 -191.200165 10.981197 
-11.413849 -133.037827 -118.287994 
-12.284935 -114.589066 -121.692154 
-25.098324 -124.133720 -106.606911 
-35.490471 -145.600967 -91.188416 
-104.176620 -174.629990 -15.458206 
-71.626068 -155.046356 -52.698463 
-113.573006 -183.561737 -3.947590 
-86.708504 -171.291977 -33.779610 
-102.838287 -171.057434 -17.631258 
-26.829685 -130.276337 -103.442932 
-100.654541 -166.868225 -20.796562 
-68.389557 -148.804108 -57.397507 
-84.100723 -169.505875 -36.813477 
-25.099171 -129.760620 -105.300903 
-56.603638 -151.420105 -68.629967 
-123.296661 -191.297440 7.614357 
-22.406124 -124.766022 -109.164627 
-121.291855 -182.004303 3.444935 
-30.806831 -150.143860 -94.839516 
-13.848274 -137.908096 -114.712891 
-45.335442 -146.168259 -81.167320 
-83.852364 -173.003601 -36.251659 
-28.512405 -120.442734 -104.033508 
-46.492714 -154.696167 -78.026756 
-16.509811 -139.487076 -111.673065 
-24.492237 -133.052429 -105.147049 
-18.935448 -117.480629 -114.340866 
-27.675095 -143.324707 -99.567131 
-42.390511 -122.111366 -89.705582 
-97.496208 -167.171402 -23.898869 
-93.755249 -162.525635 -28.734344 
-95.090546 -176.435913 -24.166504 
-78.186737 -164.662582 -43.877628 
-67.020874 -161.503555 -55.826744 
-39.763947 -125.997391 -91.442657 
-104.584915 -183.657440 -12.954147 
-31.290085 -130.431122 -98.926453 
-90.021004 -160.504517 -32.954277 
-10.449066 -141.071732 -117.393677 
-22.070251 -120.917282 -110.394737 
-74.612679 -166.914871 -46.945431 
-110.801208 -184.360672 -6.546616 
-123.156723 -184.708771 5.945538 
-96.779984 -173.145065 -23.232738 
-103.344803 -177.065109 -15.728968 
-45.031219 -142.919296 -82.226517 
-120.166969 -186.551178 3.369610 
-140.591003 -197.014450 26.313023 
-13.185165 -125.733971 -118.202789 
-16.010952 -123.985016 -115.769882 
-31.741844 -116.859367 -101.620621 
-49.239140 -140.344711 -78.596725 
-21.099766 -141.177048 -106.670357 
-35.351120 -132.133362 -94.452209 
-87.480209 -156.581680 -36.416477 
-113.568466 -178.271896 -5.179127 
-58.137566 -135.246933 -70.840477 
-60.444160 -142.392426 -66.866043 
-31.052399 -137.752838 -97.466934 
-22.588238 -122.043472 -109.613182 
-59.928959 -163.115570 -62.576839 
-31.046303 -115.665588 -102.596207 
-35.736351 -125.136627 -95.688126 
-26.642475 -136.398804 -102.210884 
-23.141689 -119.019997 -109.758530 
-18.680363 -122.112915 -113.522629 
-128.575745 -189.739655 12.556004 
-69.550385 -146.820038 -56.691631 
-40.023739 -121.773346 -92.161461 
-76.086800 -161.796997 -46.651737 
-58.825802 -158.852814 -64.673737 
-71.133293 -148.562851 -54.697319 
-20.266991 -112.068825 -114.258560 
-61.656261 -152.211578 -63.370907 
-87.307167 -156.798737 -36.539948 
-60.970921 -143.117371 -66.168755 
-95.808235 -165.678696 -25.940710 
-77.919563 -153.849976 -46.653996 
-55.356174 -156.388016 -68.730774 
-51.303173 -141.087891 -76.350983 
-21.032158 -107.400414 -114.572769 
-147.158508 -202.455109 34.172207 
-32.083157 -118.848633 -100.816353 
-88.677277 -175.894485 -30.734381 
-16.138504 -136.311401 -112.782654 
-41.660137 -128.060196 -89.059418 
-52.600082 -145.004517 -74.139740 
-69.486740 -151.711487 -55.620987 
-63.774078 -155.447586 -60.492908 
-11.917320 -127.021660 -119.177704 
-51.698280 -145.901627 -74.837532 
-124.588211 -187.059418 7.928745 
-37.485958 -127.929932 -93.282700 
-17.407471 -105.949356 -118.550430 
-65.414688 -156.858368 -58.517654 
-65.125153 -139.575150 -62.817348 
-17.963169 -141.796173 -109.677536 
-25.467377 -115.149460 -108.320099 
-52.915043 -132.023804 -76.834229 
-67.180717 -151.309586 -58.030674 
-27.665180 -142.687256 -99.724945 
-49.765083 -156.125092 -74.408142 
-32.784317 -132.991257 -96.831635 
-60.507408 -153.589996 -64.205238 
-82.067307 -165.502441 -39.784687 
-74.157654 -153.957245 -50.408043 
-95.954933 -178.646988 -22.785349 
-45.019875 -150.058060 -80.582069 
-108.983063 -182.726654 -8.751991 
-95.191116 -167.766922 -26.076260 
-78.397743 -164.615707 -43.676537 
-80.082878 -159.618835 -43.142807 
-76.090233 -159.292252 -47.229267 
-37.239075 -148.515778 -88.755806 
-64.116577 -153.600174 -60.577374 
-18.620644 -129.078735 -111.966904 
-37.385094 -123.503189 -94.410797 
-33.536457 -122.901840 -98.416336 
-80.806404 -164.125778 -41.370613 
-73.299011 -150.418976 -52.091270 
-52.993530 -158.564575 -70.599251 
-69.618156 -162.300110 -53.032951 
-27.185875 -136.048767 -101.746223 
-86.026085 -165.717636 -35.758087 
-19.181473 -140.198853 -108.824219 
-24.597130 -147.052719 -101.794304 
-85.531906 -154.636002 -38.824894 
-82.515564 -172.006012 -37.825901 
-49.813591 -130.778336 -80.238602 
-14.160294 -124.747520 -117.452057 
-142.318237 -198.199860 28.323017 
-11.175148 -130.001999 -119.231934 
-68.944733 -149.430862 -56.694443 
-95.326233 -165.731842 -26.412567 
-47.735905 -142.745300 -79.549942 
-42.299328 -130.131622 -87.936867 
-35.567806 -123.765381 -96.175507 
-37.064533 -125.447250 -94.281891 
-119.582886 -188.379120 3.206879 
-36.488140 -140.571213 -91.352882 
-55.068611 -160.099716 -68.158707 
-84.660797 -174.807312 -35.021198 
-50.240433 -135.425964 -78.731812 
-33.842453 -147.113464 -92.493065 
-119.894081 -180.569000 1.707920 
-25.518097 -110.957199 -109.241531 
-51.652740 -154.751129 -72.830635 
-43.613571 -124.616119 -87.896011 
-80.563019 -172.255341 -39.729450 
-48.384460 -148.280624 -77.614532 
-23.075275 -112.286911 -111.386993 
-93.344040 -169.352585 -27.563892 
-22.969292 -120.704369 -109.541016 
-103.058113 -182.707932 -14.708099 
-27.787586 -122.121948 -104.372116 
-122.598663 -183.787689 5.171318 
-71.792587 -149.743530 -53.761177 
-23.171959 -148.170044 -102.966766 
-66.253029 -143.625641 -60.744854 
-95.660759 -175.462021 -23.819613 
-31.910595 -129.590302 -98.498169 
-46.343315 -148.782135 -79.548584 
-91.568741 -166.111023 -30.099106 
-15.955521 -114.564728 -118.010605 
-32.514622 -124.400375 -99.095215 
-59.899292 -164.355667 -62.319000 
-100.016891 -166.972855 -21.412828 
-36.406696 -141.591370 -91.198067 
-25.497341 -137.777557 -103.041397 
-100.062393 -175.278992 -19.440516 
-13.838867 -130.678375 -116.399277 
-50.382427 -131.476364 -79.505287 
-106.927498 -173.599197 -12.933975 
-14.812138 -115.073303 -119.041199 
-91.395767 -159.993118 -31.691916 
-117.096283 -185.137543 -0.042858 
-54.263851 -151.325882 -71.002205 
-83.217041 -153.801544 -41.343781 
-65.961624 -150.648010 -59.408733 
-21.818874 -123.893845 -109.956833 
-33.163715 -149.503342 -92.620537 
-55.323837 -153.558456 -69.419571 
-139.878723 -199.346252 26.138378 
-35.420555 -131.463531 -94.537827 
-46.940689 -154.707535 -77.574112 
-45.864864 -138.838257 -82.335693 
-83.680214 -153.528885 -40.941753 
-105.225853 -176.332474 -14.009338 
-55.351765 -149.163422 -70.410950 
-86.140419 -157.673401 -37.509098 
-67.999580 -148.714905 -57.809940 
-82.582512 -154.907135 -41.724743 
-19.565613 -124.971237 -111.970398 
-41.125507 -123.181549 -90.728073 
-17.426971 -123.355011 -114.493591 
-76.279495 -156.046661 -47.791958 
-32.184731 -150.572189 -93.356033 
-36.386009 -130.023560 -93.902008 
-41.880085 -147.837280 -84.251175 
-44.286041 -155.180023 -80.131180 
-137.683075 -195.166901 22.963398 
-78.768364 -164.186768 -43.403732 
-37.207596 -132.681946 -92.460091 
-22.526386 -142.815216 -104.857315 
-49.606506 -139.372681 -78.453163 
-52.261765 -142.474274 -75.066483 
-39.117928 -146.543182 -87.325996 
-63.352360 -163.197510 -59.118942 
-48.882206 -149.927155 -76.732628 
-85.012711 -154.914551 -39.281826 
-16.294525 -118.724762 -116.705139 
-13.272865 -129.574432 -117.223907 
-11.577377 -127.335060 -119.446472 
-70.138046 -168.602585 -51.048843 
-67.808311 -143.413635 -59.231705 
-10.626175 -121.583664 -121.736023 
-89.557755 -161.369919 -33.218887 
-58.176846 -155.668503 -66.064224 
-70.281586 -166.858353 -51.309227 
-85.724731 -166.507584 -35.877575 
-24.466564 -138.616211 -103.882317 
-146.458069 -201.285843 33.197384 
-34.714993 -116.795212 -98.648903 
-45.876503 -133.546280 -83.551476 
-59.725113 -148.671326 -66.131958 
-102.530945 -169.387787 -18.327257 
-61.875729 -163.588425 -60.511581 
-52.361313 -135.447174 -76.596420 
-38.414036 -146.824493 -87.967827 
-98.038849 -170.710541 -22.532864 
-74.549011 -146.556549 -51.731506 
-61.727936 -157.842255 -61.992870 
-48.716030 -155.720398 -75.555817 
-48.241928 -155.511032 -76.080620 
-51.877209 -159.627640 -71.474045 
-100.236488 -174.273407 -19.498878 
-110.098915 -177.788452 -8.776516 
-84.134819 -165.496017 -37.709316 
-48.884491 -141.348541 -78.720146 
-29.155689 -114.345818 -104.801498 
-43.858589 -142.776154 -83.437653 
-131.326157 -191.191315 15.655579 
-62.084435 -140.434265 -65.672546 
-60.731247 -163.996109 -61.566677 
-128.064789 -177.119751 9.115536 
-119.644928 -112.043434 -14.436893 
-71.161324 -116.104630 -62.197853 
-128.834198 -156.220169 5.040760 
-117.540237 -153.436249 -6.950027 
-141.937714 -99.837990 5.125702 
-152.371490 -88.029526 12.867710 
-54.637650 -104.838181 -81.409546 
-148.093140 -192.902344 32.895298 
-140.453705 -173.120468 20.632877 
-78.260780 -124.028992 -53.228218 
-164.536362 -168.501343 43.753086 
-87.815735 -149.565857 -37.706753 
-139.301819 -128.890717 9.216686 
-37.955650 -101.807976 -98.869881 
-57.959026 -124.871651 -73.426376 
-86.469505 -154.481033 -37.918995 
-109.743874 -123.004517 -21.840313 
-134.489380 -147.582672 8.718067 
-126.326675 -153.994843 2.005733 
-134.076218 -180.037186 15.830872 
-138.632980 -106.954826 3.456776 
-65.126595 -127.111313 -65.706886 
-73.411964 -121.701080 -58.638935 
-142.280670 -119.498093 10.030384 
-130.530731 -165.311462 8.853706 
-79.631844 -104.955925 -56.274960 
-79.313042 -134.590836 -49.721378 
-98.828384 -139.577179 -28.961147 
-170.226486 -128.197739 40.120518 
-141.767822 -170.244751 21.285915 
-69.228065 -118.825768 -63.508698 
-133.106400 -189.496277 17.050709 
-112.096313 -168.491150 -8.926586 
-104.737823 -127.804085 -25.755749 
-168.852722 -95.810837 31.228397 
-73.835472 -143.601349 -53.133736 
-69.593979 -138.568466 -58.561798 
-82.365250 -138.111633 -45.838711 
-165.606567 -151.658936 40.921535 
-57.496902 -125.675591 -73.704117 
-72.091080 -143.576035 -54.891891 
-155.192719 -155.577225 31.369419 
-65.325920 -134.739563 -63.737289 
-128.555664 -152.851715 3.979656 
-111.965469 -152.023254 -12.877754 
-147.877808 -196.928329 33.612804 
-185.924637 -91.099113 47.284657 
-85.631607 -109.194237 -49.264973 
-190.528290 -85.298004 50.563572 
-47.361599 -107.733208 -88.047012 
-160.363403 -109.053474 25.772305 
-131.641174 -121.561211 -0.178715 
-126.835434 -96.975487 -10.708870 
-146.911682 -132.351227 17.663624 
-123.423615 -163.278015 1.242771 
-180.273132 -84.626358 40.106228 
-137.150116 -134.016342 8.244122 
-86.998497 -136.413025 -41.578491 
-166.809097 -93.268265 28.585773 
-46.570400 -111.482574 -87.972130 
-146.749695 -188.652054 30.559910 
-132.932739 -124.158127 1.721050 
-163.429611 -123.165321 32.125622 
-129.430542 -115.485260 -3.808681 
-163.242355 -91.336243 24.554760 
-43.718651 -108.581520 -91.509674 
-105.256706 -93.529564 -33.184509 
-113.587692 -172.338989 -6.535957 
-126.681366 -113.532196 -7.023300 
-137.131958 -117.479095 4.390057 
-111.369057 -101.831154 -25.118944 
-100.666824 -106.719376 -34.735779 
-156.593597 -118.003723 24.061436 
-127.130997 -122.291466 -4.539921 
-166.516617 -143.047806 39.838345 
-161.264374 -120.724380 29.384411 
-73.136551 -105.237747 -62.734272 
-131.674591 -154.983032 7.607063 
-108.538300 -126.205765 -22.308811 
-130.069168 -93.762047 -8.205860 
-43.887650 -105.578918 -92.036362 
-102.503296 -126.484375 -28.306490 
-101.733345 -97.253380 -35.860069 
-98.037323 -160.137985 -24.986706 
-126.478745 -129.303085 -3.568768 
-168.886230 -139.964920 41.503605 
-116.931351 -97.789619 -20.468924 
-168.182129 -142.503281 41.385090 
-155.171707 -105.160721 19.654186 
-143.812897 -154.277618 19.636662 
-96.703568 -152.452423 -28.109167 
-86.781967 -128.191528 -43.702980 
-58.112099 -103.052719 -78.333511 
-119.772095 -100.302818 -17.032387 
-171.725952 -115.616974 38.708660 
-127.038605 -181.072983 9.001667 
-141.340378 -176.056015 22.204472 
-179.654007 -99.969528 43.043156 
-106.882736 -136.458298 -21.593784 
-131.430069 -133.262054 2.323242 
-118.537201 -169.921936 -2.124691 
-69.393707 -123.558792 -62.244476 
-96.625412 -127.290451 -34.024002 
-111.517357 -97.814529 -25.901630 
-121.794983 -127.907646 -8.597393 
-87.063698 -133.090912 -42.283562 
-73.594177 -119.702301 -58.919514 
-112.669968 -101.447144 -23.901220 
-66.787643 -112.361542 -67.459534 
-149.213562 -196.503067 34.855968 
-48.275291 -117.896332 -84.771851 
-83.863335 -139.496857 -44.012547 
-66.722267 -97.380669 -71.000023 
-39.349674 -106.017693 -96.493103 
-179.246841 -93.709778 41.182194 
-154.162872 -165.808167 32.707981 
-136.702332 -145.736298 10.512764 
-103.765472 -106.146339 -31.756020 
-175.422668 -102.901398 39.472721 
-87.560944 -113.229370 -46.390953 
-123.299927 -113.251183 -10.485214 
-154.538910 -165.084656 32.917904 
-100.557716 -133.966949 -28.525291 
-114.862663 -96.476601 -22.851519 
-123.273445 -172.114349 3.141518 
-171.853317 -116.241653 38.981495 
-169.783356 -128.558105 39.758968 
-53.319275 -99.409653 -83.993027 
-53.780624 -129.475876 -76.555725 
-123.204964 -116.093712 -9.921288 
-95.915741 -131.874298 -33.673660 
-96.671082 -96.512741 -41.117031 
-59.455276 -103.713249 -76.831055 
-167.093185 -90.628387 28.258816 
-93.018639 -157.525208 -30.634132 
-145.912781 -181.888245 28.150341 
-104.313980 -142.590027 -22.751909 
-110.155975 -153.836884 -14.274769 
-136.306824 -165.131073 14.614086 
-136.639526 -134.798676 7.912697 
-111.984566 -151.353882 -13.013840 
-111.294022 -140.638458 -16.192947 
-45.953667 -119.147179 -86.813843 
-75.929138 -130.462860 -54.078072 
-93.583519 -104.147820 -42.447601 
-109.387466 -156.009018 -14.542923 
-86.606239 -124.296204 -44.783028 
-175.481750 -108.753563 40.889484 
-153.818069 -121.256584 22.027866 
-158.238251 -175.478500 39.044834 
-108.792442 -154.699585 -15.444368 
-68.955704 -141.888824 -58.432808 
-140.907166 -151.275558 16.021458 
-163.908997 -113.172562 30.289356 
-69.313774 -108.758270 -65.757759 
-125.864899 -169.846710 5.218723 
-68.037720 -97.957970 -69.544724 
-101.191895 -158.920715 -22.100212 
-145.537689 -131.632690 16.116764 
-62.274048 -123.678436 -69.368599 
-132.876495 -119.113678 0.494492 
-172.896423 -89.067909 33.726360 
-134.607346 -118.869225 2.176472 
-136.011581 -129.126526 5.966244 
-111.768120 -118.215561 -20.917709 
-148.772522 -166.152100 27.373013 
-176.912872 -103.758804 41.168552 
-153.048843 -203.799118 40.400921 
-115.297974 -109.549057 -19.382080 
-138.900177 -190.165695 23.025982 
-87.448456 -131.493744 -42.267525 
-141.791199 -156.796295 18.190014 
-143.316483 -144.784027 16.935963 
-184.190369 -100.726044 47.775517 
-145.459061 -161.129349 22.879543 
-164.707581 -147.500916 39.054020 
-164.005096 -90.171516 25.050785 
-162.611084 -135.541077 34.173962 
-105.591568 -122.664726 -26.090218 
-110.993011 -165.153702 -10.809010 
-31.529274 -103.050400 -105.037155 
-138.720306 -108.520439 3.907642 
-76.485420 -122.972015 -55.256783 
-162.947952 -112.951263 29.272633 
-130.866562 -126.642471 0.221771 
-24.891006 -107.781021 -110.608185 
-159.522446 -110.060791 25.161175 
-133.202988 -125.743683 2.360287 
-184.823395 -94.875748 47.054432 
-145.880554 -114.191933 12.415783 
-47.276009 -117.640465 -85.835007 
-145.552597 -162.444946 23.278652 
-108.862694 -102.037926 -27.588688 
-106.622002 -101.324989 -30.004883 
-78.636917 -102.218079 -57.909431 
-161.246338 -110.069977 26.895008 
-34.535637 -110.719582 -100.238312 
-186.076141 -97.092384 48.826984 
-112.628464 -160.754684 -10.186512 
-21.987652 -104.164772 -114.363464 
-85.346832 -127.072632 -45.404133 
-119.150848 -124.116928 -12.132759 
-160.569885 -164.329254 38.800961 
-103.396042 -159.167587 -19.828831 
-181.494812 -114.816544 48.336048 
-70.099945 -117.473404 -62.946548 
-102.333008 -97.957779 -35.094299 
-101.552582 -141.786194 -25.712246 
-110.618973 -97.933899 -26.776392 
-153.680878 -163.922958 31.786518 
-110.969971 -149.454849 -14.473501 
-74.650848 -131.329330 -55.161163 
-157.785919 -185.595825 40.937168 
-149.991791 -148.200882 24.434002 
-150.184402 -153.936035 25.957767 
-47.647179 -104.305626 -88.555176 
-105.405067 -108.999481 -29.447224 
-148.464020 -171.911057 28.398907 
-104.816330 -103.890846 -31.223568 
-151.491684 -103.903809 15.665970 
-113.079987 -124.607513 -18.117294 
-50.544453 -113.897606 -83.419922 
-134.377594 -146.197876 8.284561 
-100.964691 -154.746674 -23.296612 
-175.537918 -129.895767 45.849834 
-173.687424 -121.404259 42.021366 
-152.305984 -93.185181 13.997761 
-108.998817 -132.029419 -20.495411 
-57.555893 -131.022202 -72.404709 
-152.848969 -147.713013 27.190968 
-82.008850 -143.484604 -44.950455 
-62.966946 -114.682343 -70.759216 
-145.781342 -159.838531 22.903873 
-141.945282 -114.802872 8.604416 
-161.224777 -132.157883 31.996639 
-183.978760 -97.246475 46.755863 
-79.037949 -141.327866 -48.435059 
-141.744308 -143.632202 15.089508 
-180.770813 -93.487610 42.661533 
-127.779892 -102.197792 -8.548817 
-184.944824 -96.841942 47.632465 
-124.562851 -161.146179 1.892689 
-110.109543 -172.359283 -10.025135 
-102.078934 -106.537010 -33.359573 
-85.836639 -135.865662 -42.872566 
-72.302299 -124.592819 -59.082882 
-73.982277 -128.906158 -56.394821 
-144.545853 -109.306084 9.941772 
-154.800888 -125.784157 24.065296 
-99.217651 -135.961868 -29.408695 
-80.799950 -113.353867 -53.153660 
-146.107849 -123.961327 14.910122 
-96.302841 -132.963470 -33.032173 
-147.494644 -145.811279 21.371296 
-123.033791 -157.053574 -0.592575 
-104.653549 -150.145889 -20.658222 
-146.500534 -141.007797 19.258526 
-155.702728 -145.649521 29.578999 
-141.525497 -190.853531 25.822720 
-123.263382 -113.855392 -10.381779 
-154.206238 -194.140213 39.323154 
-31.925831 -106.523415 -103.833237 
-104.632126 -139.434753 -23.164192 
-157.258698 -159.023300 34.244053 
-168.862854 -107.886108 34.039433 
-135.507797 -109.980347 1.019222 
-104.448677 -134.894775 -24.401518 
-137.893539 -139.451935 10.251694 
-140.260986 -117.527412 7.544464 
-93.736557 -127.486526 -36.880451 
-119.384583 -147.440445 -6.488060 
-122.505356 -168.035690 1.423904 
-152.616699 -152.023026 27.957355 
-101.435547 -141.017654 -26.008076 
-33.955379 -106.759018 -101.739853 
-149.886002 -183.304733 32.470097 
-138.276901 -177.884399 19.551212 
-55.390659 -123.439430 -76.338562 
-59.151291 -110.417435 -75.581375 
-89.493706 -95.060196 -48.663795 
-64.520279 -108.888062 -70.542831 
-132.815796 -141.138824 5.542263 
-134.504517 -139.187561 6.786015 
-141.862900 -102.019211 5.556488 
-55.850166 -107.164436 -79.651970 
-134.208221 -161.461121 11.654747 
-62.912888 -122.494095 -69.001572 
-118.329056 -121.357979 -13.598206 
-136.153595 -149.491089 10.832470 
-165.364197 -111.536186 31.371586 
-162.497192 -146.194183 36.530529 
-156.125458 -110.506462 21.852207 
-161.110764 -118.465210 28.706097 
-139.942169 -147.068558 14.076283 
-96.684540 -108.107635 -38.414070 
-141.788712 -124.390259 10.670933 
-133.936600 -137.374969 5.795101 
-78.235489 -112.368286 -55.958336 
-162.962769 -151.942612 38.331577 
-82.130013 -125.030579 -49.109165 
-153.083862 -126.611389 22.532375 
-128.126175 -101.365868 -8.393932 
-160.310333 -179.395294 42.034794 
-151.042648 -156.558289 27.428120 
-70.805771 -98.117645 -66.727104 
-58.176888 -97.831421 -79.479523 
-121.830620 -121.244339 -10.107155 
-148.785095 -124.672729 17.764492 
-133.697388 -170.187958 13.165791 
-77.936653 -102.709335 -58.498917 
-144.478241 -194.326569 29.594379 
-112.706741 -164.150375 -9.320240 
-100.944443 -95.858215 -36.976154 
-157.993759 -174.414124 38.552357 
-104.417206 -107.087143 -30.883121 
-82.361717 -151.887238 -42.646999 
-146.806686 -98.080315 9.609016 
-153.603333 -139.117523 25.955013 
-161.705734 -115.843826 28.695728 
-107.137787 -122.817856 -24.501490 
-190.276413 -83.973846 50.003414 
-119.237762 -92.150993 -19.459951 
-103.139816 -105.187943 -32.606804 
-40.808746 -120.698608 -91.622192 
-158.097107 -151.470612 33.334423 
-163.450653 -152.611176 38.976734 
-97.712967 -122.556625 -34.029545 
-163.123077 -106.665367 27.990528 
-78.323265 -143.494476 -48.650429 
-161.501526 -111.843636 27.562740 
-45.374756 -102.419334 -91.275406 
-149.803528 -89.014061 10.516483 
-139.098526 -146.447159 13.084686 
-127.124771 -121.184456 -4.802940 
-32.011871 -104.273239 -104.268738 
-155.124115 -189.001709 39.053326 
-111.740349 -134.292465 -17.216562 
-165.384949 -149.930939 40.298107 
-164.807632 -163.640015 42.898006 
-140.870605 -181.782745 23.060894 
-27.911713 -110.514008 -106.939896 
-166.406769 -90.842560 27.618977 
-100.655136 -131.790909 -28.932167 
-180.791183 -101.356934 44.507290 
-91.391373 -135.480804 -37.381966 
-120.048576 -170.562790 -0.457825 
-139.743134 -90.182228 0.681541 
-93.209641 -110.783463 -41.284027 
-146.861862 -133.011688 17.766781 
-147.463440 -129.771301 17.619473 
-105.869270 -161.264832 -16.857952 
-151.964539 -146.022583 25.910419 
-134.892303 -106.234932 -0.467812 
-188.889130 -93.271545 50.766460 
-32.017704 -105.439919 -103.992264 
-113.079910 -136.301987 -15.404829 
-165.836319 -149.695267 40.696857 
-91.090134 -148.504791 -34.663651 
-126.043655 -177.917877 7.270397 
-119.828606 -126.677963 -10.857895 
-181.596039 -111.516388 47.672268 
-120.793266 -176.342010 1.630722 
-121.396736 -138.047821 -6.645428 
-92.374123 -152.788071 -32.380344 
-65.936333 -106.391464 -69.699463 
-108.574905 -152.209229 -16.240532 
-121.453224 -161.449753 -1.160603 
-127.677612 -130.883118 -1.997990 
-116.232239 -161.846222 -6.313240 
-72.844101 -104.839035 -63.120525 
-113.678146 -166.417938 -7.818485 
-120.393959 -95.636101 -17.490154 
-70.010475 -110.951317 -64.549225 
-91.480453 -115.566391 -41.911636 
-165.574921 -151.491592 40.850933 
-112.744934 -148.317276 -12.954376 
-128.915970 -102.719650 -7.286560 
-162.342850 -144.217575 35.917027 
-124.330109 -163.807358 2.276154 
-175.127808 -128.845154 45.194180 
-144.584793 -112.821899 10.796383 
-172.235901 -119.063789 40.020397 
-114.383499 -118.436539 -18.239243 
-177.322220 -116.993454 44.649532 
-35.359768 -107.053482 -100.260803 
-173.533691 -109.823395 39.180759 
-55.202930 -98.876122 -82.224609 
-144.701065 -174.138580 25.135609 
-125.033241 -176.355301 5.892960 
-130.931992 -149.645889 5.623146 
-113.280350 -129.303574 -16.826765 
-145.479691 -151.372925 20.637249 
-119.831787 -108.382507 -15.098339 
-85.633247 -149.154877 -39.994438 
-129.758011 -164.073349 7.790310 
-117.153976 -110.138893 -17.380871 
-107.660164 -138.203796 -20.407974 
-61.513817 -106.818390 -74.042961 
-132.385834 -112.884109 -1.443333 
-113.808807 -149.033722 -11.719509 
-65.791748 -121.938828 -66.238480 
-90.341293 -94.957550 -47.836185 
-158.447250 -131.258621 28.997967 
-115.357170 -105.765343 -20.200253 
-37.792618 -111.263779 -96.840370 
-166.443527 -121.602432 34.790661 
-83.116005 -132.604965 -46.361832 
-140.566315 -191.857666 25.092091 
-107.223175 -139.700287 -20.499825 
-186.141479 -86.334389 46.397297 
-121.643799 -142.086563 -5.460464 
-98.298859 -104.812157 -37.556835 
-45.307594 -123.553436 -86.440804 
-128.959854 -161.995499 6.506580 
-81.144035 -142.623505 -46.018913 
-114.099197 -96.645309 -23.579311 
-151.353500 -169.665039 30.780491 
-125.944832 -117.500832 -6.842636 
-69.622368 -119.636330 -62.924599 
-115.918114 -95.420380 -22.036287 
-102.277824 -131.383881 -27.396542 
-131.872223 -156.464096 8.149117 
-72.695465 -108.668610 -62.381569 
-151.734238 -94.694572 13.773529 
-130.981445 -112.877541 -2.855610 
-49.187851 -113.788582 -84.807953 
-121.378815 -126.685707 -9.298874 
-106.849960 -153.873260 -17.587303 
-67.366074 -118.862671 -65.370544 
-44.279648 -101.220337 -92.653564 
-168.627716 -107.936859 33.814999 
-119.930557 -178.016708 1.152557 
-175.273575 -114.253670 41.956120 
-138.364563 -108.685287 3.588512 
-176.153412 -106.419228 41.022739 
-131.108582 -98.300179 -6.109127 
-136.001984 -143.348297 9.255348 
-63.639786 -115.593430 -69.871994 
-130.602921 -181.729492 12.734390 
-147.222443 -190.785828 31.529743 
-123.255043 -175.798126 3.977486 
-120.259048 -147.699280 -5.549606 
-122.176933 -142.879715 -4.740944 
-108.417053 -118.327415 -24.257988 
-155.814240 -150.164520 30.738270 
-93.984802 -127.235962 -36.689201 
-105.833092 -166.428955 -15.696474 
-120.675354 -178.060242 1.910820 
-130.502563 -119.110626 -1.890896 
-163.167648 -98.760254 26.201710 
-115.492172 -160.018356 -7.480640 
-147.536041 -187.847687 31.163250 
-155.820190 -175.744644 36.677578 
-136.389542 -98.797882 -0.688831 
-100.414101 -147.750351 -25.472492 
-97.562370 -106.939880 -37.803123 
-134.962723 -171.937256 14.842602 
-123.941406 -137.182007 -4.290066 
-83.491081 -108.588348 -51.555717 
-90.240013 -121.266937 -41.835449 
-119.373734 -101.656364 -17.118591 
-109.667145 -153.041550 -14.950294 
-134.412628 -98.983917 -2.631527 
-165.154907 -102.665710 29.103832 
-95.630867 -127.335236 -35.012661 
-143.367813 -99.374886 6.454857 
-119.829422 -91.067253 -19.116991 
-178.177277 -114.858147 45.013157 
-163.679749 -101.771332 27.414539 
-140.436584 -180.323212 22.286358 
-143.776733 -111.823151 9.752998 
-153.296326 -139.296417 25.688114 
-163.287827 -106.785393 28.183872 
-158.748322 -167.742264 37.762798 
-99.747391 -126.316010 -31.113918 
-112.774406 -142.551682 -14.262096 
-137.722748 -180.277206 19.549580 
-116.600403 -110.171776 -17.929325 
-76.818665 -126.135811 -54.188187 
-120.190521 -160.178955 -2.723774 
-126.691795 -136.398407 -1.708996 
-132.904373 -185.906525 16.015114 
-27.740585 -107.726982 -107.758247 
-158.349045 -94.588661 20.393703 
-181.691803 -110.192802 47.461452 
-165.555176 -149.820694 40.443539 
-170.393356 -99.082870 33.534946 
-135.478790 -168.518616 14.568047 
-146.653656 -187.693954 30.241199 
-117.280678 -92.904831 -21.251040 
-140.899261 -106.180176 5.553623 
-78.828773 -128.822342 -51.545837 
-64.568375 -130.778198 -65.417099 
-151.934723 -106.454620 16.702682 
-120.904465 -122.270004 -10.799595 
-123.918472 -92.755013 -14.617966 
-184.321136 -108.432381 49.694370 
-113.646179 -101.537613 -22.899603 
-97.975067 -110.688797 -36.519001 
-149.914185 -192.983276 34.743359 
-175.813797 -118.916756 43.580387 
-153.237595 -189.455231 37.263462 
-153.092865 -182.691040 35.549122 
-95.860710 -105.051476 -39.950500 
-25.418255 -105.381577 -110.635101 
-90.945503 -151.191391 -34.185780 
-166.658188 -142.853470 39.935482 
-160.267685 -144.562683 33.912510 
-145.494659 -165.190720 23.857334 
-187.595154 -97.351974 50.413090 
-109.485008 -113.834389 -24.227364 
-84.569397 -133.129868 -44.780106 
-94.455536 -150.859406 -30.736874 
-166.387695 -92.575287 28.001720 
-96.660400 -99.140312 -40.518295 
-112.918907 -143.543213 -13.886959 
-64.500610 -125.803711 -66.639008 
-57.837631 -117.660461 -75.220955 
-163.393814 -103.038971 27.421352 
-162.085312 -143.759689 35.552113 
-98.952797 -142.030869 -28.267044 
-87.571945 -114.809189 -46.013462 
-126.532028 -118.859650 -5.937607 
-178.311188 -97.974953 41.231609 
-38.397968 -110.016983 -96.521484 
-133.985992 -129.684631 4.060936 
-148.465271 -190.203308 32.643070 
-133.431442 -95.455879 -4.435490 
-181.074707 -107.477226 46.211697 
-153.136169 -173.512527 33.463673 
-111.754601 -173.837234 -8.029823 
-87.590027 -141.685654 -39.761292 
-67.312607 -104.532562 -68.748138 
-97.263962 -120.727943 -34.904747 
-125.209305 -168.638229 4.279842 
-76.800919 -120.562401 -55.498764 
-160.619263 -140.524384 33.329006 
-93.179062 -156.127808 -30.797112 
-116.254807 -116.632202 -16.777987 
-87.462669 -141.056000 -40.035275 
-65.668320 -114.318253 -68.130066 
-100.302116 -109.816147 -34.383835 
-109.302139 -108.271698 -25.701321 
-173.255188 -124.376709 42.276623 
-156.983551 -160.040436 34.203602 
-144.072647 -186.872894 27.458080 
-142.580933 -141.968643 15.544060 
-125.092560 -138.462509 -2.836697 
-75.594093 -120.417091 -56.744755 
-59.579037 -109.811188 -75.292313 
-84.145058 -102.840065 -52.232098 
-78.479881 -121.812874 -53.522156 
-64.571342 -125.357521 -66.671440 
-157.248001 -146.306702 31.283695 
-124.352142 -144.140839 -2.263374 
-100.607498 -108.344910 -34.418327 
-31.409275 -108.877716 -103.806046 
-92.637871 -94.014786 -45.747887 
-178.924805 -97.226891 41.674480 
-105.110603 -162.764587 -17.272181 
-173.157257 -138.890915 45.544827 
-92.155334 -123.299332 -39.440044 
-172.783737 -107.090256 37.793461 
-70.473465 -96.972847 -67.326454 
-78.002769 -143.008545 -49.085087 
-169.606781 -147.708923 44.023647 
-70.893028 -106.139305 -64.778831 
-39.383362 -113.117493 -94.812462 
-41.732613 -104.119179 -94.539749 
-102.811951 -96.651367 -34.916214 
-114.562195 -158.178619 -8.841549 
-106.945282 -137.054733 -21.392618 
-131.475311 -103.723969 -4.482677 
-65.811829 -98.558914 -71.641296 
-126.338120 -148.037460 0.635418 
-165.530655 -121.017555 33.738003 
-174.291290 -132.963547 45.309147 
-87.502655 -112.936592 -46.517414 
-114.225861 -140.572815 -13.263077 
-160.221344 -181.006836 42.319195 
-111.700577 -135.143738 -17.059065 
-63.750977 -115.391113 -69.807236 
-71.504616 -122.409164 -60.390671 
-91.615540 -136.684509 -36.877583 
-188.058655 -94.546661 50.227993 
-62.265068 -100.780251 -74.688858 
-56.242599 -117.792068 -76.792679 
-166.151062 -114.959656 32.956089 
-154.444763 -171.444855 34.298588 
-50.343700 -103.229591 -86.096039 
-95.802460 -113.724968 -37.997200 
-55.867672 -129.747360 -74.396271 
-85.081161 -134.049896 -44.052628 
-131.600708 -151.749435 6.782806 
-101.397408 -162.571426 -21.046984 
-133.932755 -182.856796 16.340759 
-141.578659 -178.036835 22.903278 
-174.495270 -105.821724 39.218494 
-156.513306 -135.508881 28.041119 
-118.246399 -108.443016 -16.676863 
-133.763824 -105.234749 -1.833385 
-131.380600 -109.927124 -3.138996 
-81.643570 -114.988464 -51.927074 
-38.200325 -105.860519 -97.684113 
-141.654877 -129.672272 11.761665 
-127.026566 -136.534348 -1.341175 
-185.203033 -99.276787 48.456608 
-165.970703 -150.767059 41.080448 
-173.372696 -95.290405 35.648098 
-159.509430 -156.089127 35.824390 
-132.033905 -168.761169 11.163834 
-134.612549 -120.149216 2.478588 
-149.497208 -89.733391 10.375637 
-175.831589 -106.069839 40.618412 
-62.018826 -127.939041 -68.636726 
-100.420151 -129.987610 -29.586483 
-137.129471 -110.546417 2.779526 
-152.688293 -98.506981 15.616184 
-85.880028 -141.260223 -41.577705 
-185.138733 -86.863220 45.512684 
-166.320969 -120.523727 34.417355 
-42.550953 -120.318443 -89.960281 
-149.714508 -179.561981 31.429699 
-128.855881 -167.409332 7.657883 
-158.614471 -111.727234 24.635624 
-124.180862 -181.907715 6.324612 
-150.529205 -149.216385 25.209415 
-142.107101 -166.164307 20.680271 
-129.751984 -125.896866 -1.070786 
-148.550003 -132.385620 19.317348 
-96.314873 -146.445221 -29.892994 
-99.888153 -111.574417 -34.391834 
-58.466530 -106.795235 -77.109406 
-152.502655 -102.490829 16.353775 
-166.895737 -93.491760 28.724636 
-21.941769 -103.485847 -114.567032 
-166.997879 -110.740562 32.828106 
-167.715744 -139.696564 40.265583 
-70.029518 -137.570618 -58.355736 
-151.697617 -189.140366 35.643482 
-156.247177 -139.793350 28.767574 
-159.906219 -99.335243 23.058887 
-144.937897 -97.751862 7.655582 
-98.558777 -146.933609 -27.525654 
-84.969597 -143.204575 -42.041267 
-118.750916 -130.707245 -11.005867 
-63.918579 -98.794876 -73.488373 
-54.171803 -102.403397 -82.442253 
-117.606628 -155.594421 -6.382736 
-127.210236 -147.209442 1.319408 
-117.515572 -175.539810 -1.847874 
-111.820709 -118.817490 -20.725258 
-142.666107 -135.219391 14.064106 
-154.511887 -109.645927 20.031719 
-121.435234 -129.384735 -8.616161 
-128.538010 -102.680389 -7.675331 
-175.915527 -134.088776 47.201725 
-125.469513 -105.358353 -10.136559 
-158.517883 -117.241852 25.817730 
-75.361923 -131.063934 -54.508438 
-101.695114 -124.690826 -29.534346 
-121.811287 -169.579788 1.084850 
-119.208138 -98.601501 -17.993517 
-131.991135 -177.541656 13.157513 
-78.074295 -137.191071 -50.362606 
-144.810455 -162.795013 22.614353 
-140.488556 -126.375252 9.825321 
-147.777588 -143.978638 21.230434 
-127.368202 -99.523857 -9.582592 
-155.191406 -188.615662 39.031376 
-147.260834 -193.914200 32.293926 
-151.762573 -89.332245 12.558208 
-159.345490 -112.306259 25.504261 
-89.255821 -121.022995 -42.880676 
-142.209763 -194.783096 27.421535 
-126.151123 -116.324478 -6.908264 
-99.739700 -100.187065 -37.182266 
-151.347290 -103.658737 15.464085 
-116.847389 -94.470131 -21.323214 
-125.845161 -180.242096 7.610096 
-153.568405 -190.142670 37.755215 
-106.198677 -162.522034 -16.235447 
-185.243591 -100.249695 48.723019 
-170.171127 -116.178978 37.277164 
-93.506348 -101.340927 -43.176186 
-123.908836 -146.313416 -2.204750 
-66.955315 -113.134819 -67.111748 
-96.550598 -99.648697 -40.510670 
-109.725700 -150.114670 -15.570358 
-134.007828 -152.069962 9.275162 
-70.938316 -129.055908 -59.417824 
-110.342796 -99.801132 -26.620710 
-95.815735 -133.314850 -33.439983 
-36.084305 -102.974762 -100.479050 
-65.590164 -106.063614 -70.123245 
-166.874710 -119.933609 34.836712 
-148.374176 -140.232925 20.960896 
-151.788376 -201.778305 38.666027 
-159.216980 -87.476547 19.615902 
-139.248123 -97.641930 1.914566 
-95.310211 -145.854172 -31.039295 
-185.564865 -103.527519 49.806034 
-112.241493 -165.330841 -9.513790 
-23.617561 -103.614830 -112.853729 
-97.168678 -137.011993 -31.223366 
-132.240662 -112.952438 -1.573315 
-49.534191 -110.906105 -85.128639 
-153.941925 -130.243042 24.236691 
-106.126312 -131.011917 -23.616920 
-81.229538 -135.155533 -47.665226 
-145.447388 -88.674263 6.061825 
-68.711449 -139.493027 -59.233871 
-102.395035 -110.778244 -32.058289 
-125.785362 -132.959167 -3.417263 
-143.264328 -131.531891 13.809734 
-154.640869 -148.165100 29.095829 
-85.427315 -96.353294 -52.448647 
-157.270874 -135.736084 28.854816 
-160.794830 -147.257309 35.067081 
-102.088181 -154.638977 -22.193018 
-133.868149 -123.440842 2.494316 
-113.493713 -127.890228 -16.940268 
-161.943604 -168.601395 41.171803 
-136.196640 -176.443878 17.127415 
-106.169586 -107.088280 -29.122543 
-109.327904 -166.823975 -12.094223 
-145.649719 -129.178238 15.659992 
-129.740005 -113.315521 -4.001076 
-74.564201 -132.508423 -54.974716 
-120.961945 -133.693176 -8.092251 
-146.766541 -193.828903 31.777615 
-123.516708 -119.595383 -8.795918 
-113.591713 -154.155624 -10.749554 
-149.567169 -137.698181 21.571362 
-127.187546 -103.539200 -8.832703 
-100.541054 -165.060791 -21.329802 
-125.215096 -91.744186 -13.549938 
-127.354988 -135.986603 -1.138317 
-100.284653 -156.673416 -23.532816 
-65.670067 -126.782463 -65.237228 
-153.134232 -156.089462 29.420429 
-156.352402 -105.364281 20.887440 
-158.547272 -187.355316 42.110096 
-126.145538 -172.499619 6.115963 
-150.067947 -132.128189 20.782444 
-56.011372 -108.977608 -79.069466 
-160.087158 -174.692688 40.719830 
-127.674141 -169.675842 6.996510 
-17.318604 -102.616692 -119.412704 
-120.450485 -158.799942 -2.782497 
-170.011078 -151.220001 45.244160 
-50.653961 -116.843002 -82.626740 
-150.472305 -102.954147 14.421703 
-130.563568 -128.907333 0.442738 
-156.317505 -104.675232 20.692554 
-168.395508 -154.860352 44.465649 
-113.610641 -115.041901 -19.802986 
-168.650085 -96.509239 31.186840 
-83.219002 -132.060486 -46.384659 
-25.985584 -101.056709 -111.068359 
-105.049057 -130.397125 -24.841656 
-93.157425 -146.483231 -33.055908 
-70.357254 -127.152100 -60.443100 
-99.138893 -135.624191 -29.566133 
-125.399086 -115.499779 -7.855000 
-154.171234 -132.597137 25.013081 
-101.331619 -121.435303 -30.654606 
-147.846161 -107.589890 12.858936 
-60.246983 -98.029663 -77.354073 
-146.997940 -186.189346 30.238056 
-47.098400 -106.580650 -88.578735 
-156.580017 -124.035110 25.446789 
-138.406464 -179.427399 20.039265 
-164.587524 -143.603912 38.029514 
-175.714630 -92.721359 37.404728 
-142.457916 -131.241669 12.932346 
-120.533333 -108.412888 -14.386570 
-147.420410 -144.016495 20.880428 
-137.285522 -176.565216 18.249363 
-142.627213 -177.160934 23.753407 
-105.756592 -167.642792 -15.491768 
-145.940216 -162.901077 23.773815 
-130.260010 -145.168472 3.909592 
-58.209846 -100.421738 -78.845581 
-143.778015 -115.083298 10.510490 
-88.885681 -117.316666 -44.112175 
-164.967194 -121.936043 33.385044 
-139.756500 -149.920135 14.551189 
-99.817474 -151.682648 -25.159723 
-141.767639 -189.577652 25.770023 
-91.889709 -133.017746 -37.452682 
-105.099007 -118.431473 -27.566910 
-98.671631 -96.715385 -39.060425 
-104.378799 -149.786667 -21.017530 
-153.225494 -91.483658 14.526768 
-125.896065 -103.845795 -10.058914 
-149.623169 -97.832222 12.380695 
-31.166561 -112.415924 -103.229164 
-55.199078 -112.402161 -79.091110 
-93.979240 -142.837433 -33.076019 
-124.248840 -133.457764 -4.845081 
-45.624084 -119.089371 -87.158325 
-133.728455 -137.230896 5.552597 
-122.416153 -121.040894 -9.566162 
-38.264614 -112.212677 -96.146149 
-149.917633 -152.245987 25.297787 
-61.692913 -107.367485 -73.735687 
-110.807800 -136.306381 -17.686207 
-139.811462 -105.887749 4.393085 
-97.817436 -112.899323 -36.164612 
-163.024719 -171.043625 42.824276 
-164.632935 -95.777542 26.981785 
-140.050751 -179.442123 21.694416 
-101.744171 -104.990845 -34.054485 
-53.493294 -103.232224 -82.931580 
-145.604172 -160.110397 22.788952 
-150.033493 -150.774414 25.072834 
-72.876495 -128.006607 -57.714256 
-94.031013 -158.113617 -29.480694 
-99.051620 -130.110687 -30.932663 
-127.959106 -162.480850 5.613888 
-156.790466 -130.652985 27.193211 
-124.533249 -132.373291 -4.810932 
-108.349983 -107.225113 -26.900547 
-175.964813 -102.954468 40.029636 
-166.607086 -94.695885 28.713978 
-161.399689 -124.718323 30.446720 
-140.830948 -88.554207 1.396656 
-105.976669 -94.959244 -32.129669 
-152.815826 -127.712379 22.518513 
-111.039993 -92.802650 -27.543663 
-70.665230 -98.194954 -66.850357 
-122.616379 -150.452148 -2.543079 
-65.287323 -130.127075 -64.845924 
-162.369202 -126.731995 31.887699 
-109.875702 -155.198746 -14.240425 
-141.277084 -140.105637 13.802177 
-155.139648 -166.367355 33.818882 
-131.573822 -127.241165 1.071095 
-116.802177 -147.078583 -9.166084 
-177.351273 -99.457550 40.611248 
-119.629128 -165.388031 -2.079468 
-160.239182 -159.796631 37.417400 
-46.409470 -118.595947 -86.483841 
-140.749756 -159.196579 17.700619 
-155.899536 -128.132050 25.713505 
-88.494987 -130.350784 -41.481369 
-130.551971 -137.332840 2.385384 
-125.826256 -125.826408 -5.030628 
-169.429077 -107.043205 34.412708 
-112.830215 -149.600494 -12.571060 
-87.648178 -96.986305 -50.070908 
-155.406006 -126.501579 24.839565 
-102.108200 -145.053055 -24.396372 
-134.209854 -115.305702 0.950626 
-116.399178 -93.747345 -21.941109 
-88.967369 -109.201828 -45.912357 
-171.403809 -139.844376 44.004620 
-80.834297 -143.941025 -46.024460 
-82.597649 -124.352310 -48.796738 
-130.508759 -124.781509 -0.569294 
-126.038589 -177.642044 7.201324 
-184.410004 -106.024216 49.225056 
-110.101158 -101.422470 -26.487373 
-166.432861 -113.997147 33.015903 
-89.403732 -113.081406 -44.574154 
-100.046669 -100.950615 -36.696796 
-122.585403 -91.724922 -16.195999 
-108.457741 -146.673859 -17.642151 
-97.381073 -132.613983 -32.030132 
-68.131851 -122.097633 -63.850960 
-154.051758 -139.034760 26.386257 
-51.069588 -118.830910 -81.748131 
-63.162521 -132.283997 -66.480042 
-53.755997 -104.270515 -82.426849 
-149.394867 -97.221001 12.009590 
-87.457565 -121.133392 -44.661465 
-149.218109 -116.669594 16.343143 
-144.255371 -159.007080 21.178143 
-112.701233 -110.370895 -21.799948 
-69.402946 -105.310669 -66.467850 
-187.461853 -89.360733 48.425617 
-111.268661 -109.857208 -23.358150 
-121.416214 -92.193344 -17.261826 
-64.543503 -122.460876 -67.371284 
-63.012642 -113.351288 -71.022049 
-153.685181 -178.212936 35.105404 
-84.269196 -105.610878 -51.464706 
-108.761642 -157.376831 -14.854321 
-91.082321 -122.655029 -40.667358 
-155.438660 -99.703636 18.656567 
-145.974060 -130.728699 16.345417 
-142.514130 -160.869614 19.861042 
-98.442604 -163.454407 -23.810347 
-186.168488 -101.093224 49.847744 
-107.748062 -142.241425 -19.383144 
-92.291016 -130.842819 -37.554039 
-77.870224 -98.188332 -59.614296 
-133.626633 -149.192093 8.224712 
-78.368652 -130.450516 -51.630390 
-98.639214 -96.526100 -39.136894 
-139.466064 -194.734818 24.654224 
-167.488800 -147.913681 41.943577 
-118.888496 -168.487228 -2.104584 
-81.741867 -111.043343 -52.743412 
-79.479942 -96.935585 -58.287865 
-84.928368 -135.371307 -43.899616 
-82.781677 -137.435730 -45.577171 
-151.166031 -106.341064 15.904160 
-171.845795 -105.769775 36.544994 
-100.344826 -122.358612 -31.431702 
-142.567108 -183.691315 25.207745 
-138.855194 -175.969025 19.687862 
-57.239971 -126.112106 -73.860962 
-90.882751 -95.747536 -47.109039 
-128.437561 -144.045547 1.818420 
-150.647568 -166.931931 29.437420 
-178.267960 -87.548569 38.769794 
-84.908409 -117.067001 -48.165352 
-185.993286 -102.083206 49.901379 
-166.961853 -88.377068 27.604694 
-148.643829 -175.406082 29.390217 
-123.790878 -172.872559 3.837151 
-121.151688 -127.792328 -9.270351 
-46.722816 -106.661705 -88.937225 
-159.506973 -114.743271 26.231747 
-139.632751 -131.784607 10.220337 
-172.407745 -118.730072 40.115627 
-89.344299 -148.912247 -36.322876 
-86.633392 -131.924011 -42.986477 
-152.065857 -123.911942 20.883633 
-123.494614 -124.921188 -7.582790 
-159.242889 -170.738052 38.954464 
-86.268951 -134.427658 -42.771847 
-128.300385 -145.393280 1.993237 
-166.406403 -103.307182 30.509777 
-187.482346 -89.275566 48.426449 
-102.924515 -128.455017 -27.426279 
-91.245712 -142.128601 -35.986328 
-69.911880 -131.439285 -59.896080 
-67.452843 -103.568169 -68.830956 
-66.925705 -109.498962 -67.984825 
-171.286713 -137.416641 43.323872 
-157.722473 -129.853287 27.943943 
-100.308578 -102.530380 -36.067276 
-160.805511 -131.083435 31.326267 
-80.828522 -137.481628 -47.528522 
-79.686470 -126.803329 -51.152569 
-46.055054 -116.205795 -87.394257 
-36.753639 -111.796432 -97.760498 
-147.257324 -177.327927 28.443195 
-121.504311 -149.699615 -3.834728 
-113.730843 -112.894638 -20.180294 
-175.868546 -107.586395 41.007298 
-135.827637 -93.866615 -2.397076 
-189.769348 -89.586334 50.795879 
-77.644211 -123.006317 -54.084793 
-166.212021 -131.332550 36.815014 
-69.067993 -133.801559 -60.195854 
-151.665680 -111.773674 17.666172 
-112.394333 -119.260277 -20.046337 
-142.409271 -112.904366 8.630154 
-127.026527 -120.865463 -4.975620 
-63.105396 -119.074982 -69.601257 
-103.730171 -167.122086 -17.648140 
-166.233383 -158.787888 43.204746 
-140.900375 -189.852493 24.962566 
-168.011917 -86.414497 28.204288 
-176.121704 -94.223900 38.162174 
-90.283226 -134.310654 -38.766548 
-164.081467 -101.772575 27.818371 
-118.350319 -152.142487 -6.436367 
-110.118668 -168.257828 -10.967300 
-145.336090 -157.777145 21.978451 
-40.883926 -107.619980 -94.580261 
-102.019241 -158.011551 -21.480000 
-131.090271 -108.647507 -3.727455 
-74.339081 -131.201935 -55.503895 
-42.744144 -107.405594 -92.761353 
-97.372864 -94.254326 -40.935905 
-81.555946 -151.398392 -43.569805 
-70.157890 -111.795891 -64.205246 
-165.900940 -146.199707 39.950970 
-133.428375 -91.249573 -5.414219 
-134.286224 -96.544998 -3.324223 
-111.941887 -132.625412 -17.400785 
-117.585495 -171.852371 -2.632935 
-118.669884 -133.940475 -10.337322 
-129.277832 -136.176514 0.837276 
-86.817436 -139.734283 -40.990005 
-143.428986 -141.309357 16.243023 
-118.608658 -109.611732 -16.041878 
-148.511124 -196.929169 34.249195 
-61.013630 -121.649193 -71.105400 
-127.435349 -95.918648 -10.351376 
-150.492325 -136.720337 22.273891 
-163.406158 -166.294159 42.105816 
-150.343384 -200.292831 36.869946 
-93.187096 -126.951263 -37.556549 
-154.432953 -107.550354 19.466373 
-142.718658 -95.078545 4.806240 
-77.953529 -105.405060 -57.856689 
-134.080475 -116.411514 1.077148 
-134.178818 -178.993408 15.691822 
-54.383476 -118.627502 -78.466431 
-174.201782 -113.090843 40.609760 
-132.839752 -159.306747 9.780388 
-117.704597 -118.347763 -14.923706 
-105.482101 -100.389931 -31.366831 
-34.532429 -110.536255 -100.284065 
-99.591278 -156.915680 -24.173136 
-164.038727 -119.930367 31.987156 
-54.094250 -119.059967 -78.656662 
-111.676071 -164.859863 -10.191013 
-121.316544 -145.393280 -5.022198 
-128.486404 -148.876099 2.987942 
-147.952850 -101.258484 11.497540 
-101.143959 -129.805740 -28.901590 
-150.888077 -169.226517 30.211246 
-168.046829 -115.902138 35.079029 
-168.349121 -137.301910 40.346371 
-180.723892 -110.315788 46.517704 
-77.713516 -104.258347 -58.363777 
-140.677582 -190.401184 24.866047 
-109.120857 -101.426353 -27.471210 
-104.510880 -153.163651 -20.101564 
-100.909515 -106.593971 -34.521069 
-160.739288 -115.841736 27.724430 
-118.912621 -124.771149 -12.220310 
-126.168579 -167.915192 5.075756 
-88.572113 -151.771088 -36.435448 
-113.876663 -128.606750 -16.389385 
-126.048561 -98.075066 -11.244251 
-59.353683 -99.878754 -77.822517 
-72.500732 -134.551849 -56.573551 
-125.547760 -171.313049 5.240265 
-120.993469 -104.316803 -14.874439 
-109.079208 -137.485931 -19.149014 
-174.946732 -96.333580 37.471210 
-57.171432 -120.824722 -75.156219 
-133.707764 -165.009476 11.975060 
-140.202240 -122.773857 8.702358 
-117.585091 -160.023163 -5.377129 
-126.248344 -126.434692 -4.465542 
-118.294769 -153.820877 -6.102867 
-139.281311 -165.078995 17.589947 
-133.647461 -102.756905 -2.525021 
-155.378372 -130.991791 25.853306 
-49.793678 -105.850128 -86.040710 
-103.056946 -110.952812 -31.352890 
-117.856804 -139.657562 -9.827999 
-158.299438 -110.322388 23.993320 
-172.150223 -95.926529 34.567646 
-157.217743 -121.404427 25.477215 
-161.387115 -121.272888 29.634945 
-128.811005 -109.468033 -5.826714 
-155.712051 -113.399979 22.108067 
-130.269623 -114.698769 -3.148228 
-93.072975 -132.743240 -36.327736 
-103.908958 -166.478973 -17.617712 
-111.639374 -131.756851 -17.906124 
-182.022293 -97.375900 44.820560 
-111.148354 -104.818764 -24.647667 
-170.597702 -131.085114 41.163151 
-152.521240 -191.878616 37.105961 
-137.267059 -156.735153 13.631237 
-114.232574 -126.229469 -16.583275 
-43.099220 -107.592987 -92.361206 
-102.277756 -130.803604 -27.531214 
-149.897308 -127.687881 19.581112 
-161.690903 -142.469757 34.856724 
-126.541809 -169.766571 5.880108 
-140.737488 -127.915482 10.432640 
-160.102020 -135.802963 31.714283 
-98.092934 -152.223129 -26.766697 
-166.248383 -127.885483 36.051983 
-127.271324 -107.793030 -7.761868 
-100.447655 -108.797974 -34.473801 
-75.682655 -111.488892 -58.726692 
-132.622101 -92.448807 -5.945995 
-155.368439 -106.378960 20.134373 
-134.200073 -101.093559 -2.355717 
-168.985565 -111.867775 35.086246 
-135.997986 -187.642151 19.525303 
-132.237061 -113.870163 -1.364082 
-130.909348 -92.523361 -7.649189 
-111.808739 -134.613388 -17.073427 
-140.112610 -182.108063 22.374912 
-116.675453 -103.684830 -19.358580 
-56.903946 -123.929291 -74.704811 
-145.854904 -152.741135 21.331524 
-154.548492 -159.302292 31.586308 
-98.720459 -129.973785 -31.297075 
